# .PCD v0.7 - Point Cloud Data file format
VERSION 0.7
FIELDS x y z
SIZE 4 4 4
TYPE F F F
COUNT 1 1 1
WIDTH 1516
HEIGHT 1
VIEWPOINT 0 0 0 1 0 0 0
POINTS 1516
DATA ascii
0.054997001 -0.24258 0.90237999
0.056543998 -0.24268 0.90274
0.058113001 -0.24286 0.9034
0.059694 -0.24308001 0.90420997
0.061278 -0.24330001 0.90503001
0.062866002 -0.24352001 0.90587002
0.064443 -0.24369 0.90649998
0.066014998 -0.24383999 0.90706003
0.067584999 -0.24397001 0.90754002
0.069155 -0.2441 0.90802002
0.070726 -0.24422 0.90846997
0.072297998 -0.24434 0.90893
0.073856004 -0.24442001 0.90919
0.075411998 -0.24448 0.90943003
0.076981999 -0.24458 0.90979999
0.078633003 -0.24493 0.91110998
0.082025997 -0.24586999 0.91460001
0.083774999 -0.24647 0.91681999
0.085519001 -0.24703 0.91891003
0.087200001 -0.24739 0.92025
0.088919997 -0.24785 0.92196
0.090590999 -0.24815001 0.92309999
0.092237003 -0.24838001 0.92395002
0.093810998 -0.24841 0.92407
0.095417 -0.24853 0.92449999
0.097671002 -0.25187999 0.93109
0.096961997 -0.24848001 0.92431998
-0.0046394998 -0.24859001 0.93058002
-0.0030620999 -0.24823999 0.92929
-0.0014888 -0.24787 0.92787999
7.9655001e-05 -0.24726 0.92562997
0.001642 -0.24688999 0.92422003
0.0032009 -0.24662 0.92320001
0.0047555999 -0.24631 0.92203999
0.0063070999 -0.24602 0.92098999
0.0078464998 -0.24547 0.91891998
0.0093748001 -0.24482 0.91645998
0.010896 -0.24417999 0.91409999
0.012415 -0.24368 0.91219002
0.013932 -0.24324 0.91055
0.01547 -0.24321 0.91047001
0.017007999 -0.24319001 0.91039002
0.018542999 -0.24315 0.91021001
0.020076999 -0.24309 0.91000003
0.021612 -0.24304 0.90982002
0.023136999 -0.24291 0.90932
0.024662999 -0.2428 0.90891999
0.026174 -0.24256 0.90799999
0.027672 -0.24224 0.90682
0.029174 -0.24198 0.90583003
0.030686 -0.24183001 0.90527999
0.032194 -0.24166 0.90465999
0.033736002 -0.24175 0.90496999
0.035254002 -0.24167 0.90467
0.036766998 -0.24156 0.90425998
0.038270999 -0.2414 0.90368998
0.039783999 -0.24132 0.90336001
0.041267 -0.24106 0.90237999
0.042780999 -0.24099 0.90214002
0.044289 -0.24089999 0.90179002
0.045788001 -0.24076 0.90129
0.047297999 -0.24068999 0.90103
0.048820999 -0.24068999 0.90103
0.050351001 -0.24072 0.90114999
0.051888 -0.24078999 0.90139002
0.053433999 -0.24089 0.90175998
0.05497 -0.24094 0.90195
0.056517001 -0.24102999 0.9023
0.058084 -0.24121 0.90296
0.059668999 -0.24144 0.90384001
0.061257999 -0.24168 0.90473998
0.062852003 -0.24192999 0.90566999
0.064434998 -0.24213 0.90640002
0.066021003 -0.24232 0.90713
0.067598999 -0.24247999 0.90772998
0.069178 -0.24264 0.90832001
0.070749998 -0.24276 0.90877998
0.072328001 -0.24291 0.90930998
0.073881999 -0.24296001 0.90951997
0.075433001 -0.243 0.90968001
0.085600004 -0.2457 0.91978002
0.087311 -0.24614 0.92142999
0.089028999 -0.24659 0.92308998
0.090699002 -0.24687999 0.9242
0.092343003 -0.2471 0.92501003
0.093911998 -0.24711999 0.92506999
0.095512003 -0.24721 0.92541999
0.097066998 -0.24719 0.92532998
-0.0046429001 -0.24719 0.93127
-0.0030642 -0.24684 0.92995
-0.0014892 -0.24637 0.92817998
7.9689002e-05 -0.24575 0.92584002
0.0016427001 -0.24542999 0.92462999
0.0032023001 -0.24516 0.92360997
0.0047577 -0.24484999 0.92245001
0.0063105002 -0.24459 0.92146999
0.0078520002 -0.24409001 0.91957003
0.0093786996 -0.24336 0.91684002
0.010898 -0.24268 0.91426998
0.012414 -0.2421 0.91207999
0.013927 -0.24158999 0.91017997
0.015463 -0.24156 0.91005999
0.017000001 -0.24154 0.90999001
0.018537 -0.24152 0.90990001
0.020073 -0.24150001 0.90981001
0.021609999 -0.24147999 0.90973002
0.023139 -0.24139 0.90941
0.033693999 -0.23991001 0.90385002
0.035213999 -0.23986 0.90363997
0.036731999 -0.23980001 0.90341997
0.039795 -0.23985 0.90359998
0.045767002 -0.23913001 0.90087998
0.047277 -0.23906 0.90064001
0.048799999 -0.23906 0.90065002
0.050329 -0.23909999 0.90075999
0.051865 -0.23916 0.90099001
0.053406 -0.23923001 0.90127999
0.05494 -0.23928 0.90145999
0.056481 -0.23935001 0.90173
0.058040999 -0.2395 0.90227997
0.059618 -0.2397 0.90306002
0.061198 -0.23992001 0.90385002
0.062790997 -0.24016 0.90478998
0.064379998 -0.24038 0.90561998
0.065972999 -0.24061 0.90648001
0.067565002 -0.24082001 0.90727001
0.069164999 -0.24105 0.90814
0.070743002 -0.2412 0.90868998
0.072330996 -0.24137001 0.90934002
0.073895 -0.24146 0.90967
0.075452 -0.24152 0.90990001
0.089184001 -0.24545 0.92470002
0.090837002 -0.24569 0.92559999
0.092465997 -0.24586 0.92624003
0.094024003 -0.24584 0.92616999
0.095614001 -0.24590001 0.92641002
0.097180001 -0.24590001 0.92640001
-0.006244 -0.24666999 0.93526
-0.0046492 -0.24595 0.93252999
-0.0030668001 -0.24547 0.93071997
-0.0014898001 -0.2449 0.92853999
7.9741003e-05 -0.24433 0.92641002
0.0016438999 -0.24404 0.92532003
0.0032051001 -0.24381 0.92440999
0.0047623999 -0.24353001 0.92334998
0.0063165999 -0.24326 0.92236
0.0078611001 -0.24281 0.92063999
0.0093897004 -0.24209 0.91791999
0.010907 -0.24133 0.91505003
0.012413 -0.24054 0.91202998
0.013915 -0.23986 0.90943998
0.015448 -0.23977999 0.90912998
0.01698 -0.23971 0.90886998
0.018516 -0.23971 0.90888
0.020056 -0.23975 0.90902001
0.021596 -0.23977999 0.90916002
0.023134001 -0.23980001 0.90921998
0.033668 -0.23819999 0.90314001
0.035190001 -0.23817 0.90303999
0.036715001 -0.23816 0.90298998
0.045745999 -0.23749 0.90047002
0.047256999 -0.23743001 0.90025002
0.048781998 -0.23745 0.90030998
0.050308999 -0.23747 0.90039998
0.051842 -0.23751999 0.90059
0.053376 -0.23757 0.90078002
0.054908998 -0.23762 0.90095001
0.056442998 -0.23766001 0.90113002
0.05799 -0.23776001 0.90149999
0.059558999 -0.23794 0.90215999
0.061129998 -0.23812 0.90284997
0.062716998 -0.23835 0.90372002
0.064309999 -0.23859 0.90464997
0.065922 -0.23889001 0.90577
0.067533001 -0.23917 0.90684998
0.069149002 -0.23946001 0.90793997
0.070745997 -0.23966999 0.90873998
0.072346002 -0.23988 0.90952998
0.073909 -0.23996 0.90983999
0.075462997 -0.24000999 0.91004002
0.090984002 -0.24450999 0.9271
0.092583999 -0.2446 0.92742997
0.094132997 -0.24455 0.92724001
0.095706001 -0.24457 0.92729998
0.097263999 -0.24454001 0.92720002
-0.0062493002 -0.24529 0.93606001
-0.0046545998 -0.24465001 0.93360001
-0.0030695 -0.24411 0.93155998
-0.0014908999 -0.24349999 0.92922002
7.9814999e-05 -0.24299 0.92727
0.0016456 -0.24273001 0.92628002
0.0032084 -0.24248999 0.92536998
0.0047677001 -0.24223 0.92439002
0.0063228002 -0.24194001 0.92326999
0.0078694997 -0.24151 0.92162001
0.0093959002 -0.24070001 0.91852999
0.012408 -0.23889001 0.91163999
0.013901 -0.23807999 0.90853
0.015428 -0.23793 0.90798002
0.016956 -0.23783 0.90758997
0.01849 -0.23783 0.90759999
0.020031 -0.23791 0.90789998
0.021573 -0.23797999 0.90816998
0.033613 -0.23627999 0.90166998
0.035142001 -0.23631001 0.90179998
0.045724001 -0.23585001 0.90003002
0.047245 -0.23585001 0.90003002
0.048772998 -0.23588 0.90013999
0.050299998 -0.2359 0.90024
0.051821999 -0.2359 0.90024
0.053348999 -0.23592 0.90031999
0.054875001 -0.23593999 0.90039003
0.056402002 -0.23596001 0.90047002
0.057930999 -0.23599 0.90056998
0.059489999 -0.23613 0.90112001
0.061046001 -0.23626 0.90161002
0.062624 -0.23647 0.90237999
0.064217001 -0.23671 0.90333003
0.065844998 -0.23707999 0.90472001
0.067474999 -0.23743001 0.90606999
0.069110997 -0.23779 0.90744001
0.070719004 -0.23804 0.90837997
0.072334997 -0.2383 0.90939999
0.091100998 -0.24326 0.92830002
0.092666 -0.24325 0.92826003
0.094209999 -0.24318001 0.92799997
0.095779002 -0.24318001 0.92800999
0.097337 -0.24315 0.92790002
-0.0078557003 -0.24445 0.93892002
-0.0062567 -0.24399 0.93717003
-0.0046597002 -0.24333 0.93462998
-0.0030726001 -0.24277 0.93248999
-0.0014923 -0.24214 0.93006003
7.9865997e-05 -0.24169999 0.92835999
0.0016476 -0.24144 0.92737001
0.0032124 -0.24122 0.92651999
0.0047745998 -0.24101 0.92571998
0.0063316999 -0.24072 0.92457998
0.0078817997 -0.24032 0.92306
0.0094056996 -0.23939 0.91948003
0.015404 -0.23603 0.90657002
0.016927 -0.23589 0.90605998
0.018459 -0.23589 0.90605998
0.019994 -0.23593 0.90621001
0.048767 -0.23432 0.90003002
0.050287999 -0.23432 0.90003002
0.051803 -0.23429 0.89990997
0.053323999 -0.23429 0.89990997
0.054834999 -0.23424 0.89973003
0.056350999 -0.23423 0.89965999
0.057861999 -0.23418 0.89950001
0.0594 -0.23424999 0.89976001
0.060941 -0.23433 0.90004998
0.062509 -0.23450001 0.90073001
0.064104997 -0.23477 0.90175003
0.065743998 -0.23518001 0.90333003
0.067386001 -0.23558 0.90486997
0.069040999 -0.23601 0.90652001
0.070664003 -0.23632 0.90767998
0.072282001 -0.23659 0.90872997
0.091128998 -0.24176 0.92857999
0.092701003 -0.24176 0.92860001
0.094250999 -0.24171001 0.92839998
0.095822997 -0.24172001 0.92843002
0.097391002 -0.24171001 0.92840999
0.099721 -0.24516 0.93554997
0.098943003 -0.24167 0.92825001
-0.0094638001 -0.24499001 0.94098997
-0.0078582 -0.24293999 0.93922001
-0.0062612998 -0.24258 0.93786001
-0.0046644998 -0.242 0.93559998
-0.0030755 -0.24142 0.93336999
-0.0014938 -0.24082001 0.93102998
7.9978003e-05 -0.24037001 0.92931002
0.001649 -0.24008 0.92817998
0.0032154 -0.23987 0.92738003
0.0047797998 -0.2397 0.92672998
0.015382 -0.23416001 0.90527999
0.016902 -0.23401 0.90472001
0.018431 -0.23401 0.90470999
0.019959999 -0.23399 0.90464997
0.053250998 -0.23243999 0.89866
0.054749001 -0.23236001 0.89832002
0.056253001 -0.23229 0.89809
0.057758 -0.23224001 0.89788002
0.059285 -0.23228 0.89802003
0.060809001 -0.2323 0.89810002
0.062360998 -0.23242 0.89859003
0.063947 -0.23266999 0.89952999
0.065571003 -0.23304 0.90096003
0.067198001 -0.2334 0.90235001
0.068866998 -0.23388 0.90423
0.070486002 -0.23418 0.90539002
0.072095998 -0.23444 0.90640002
0.092752002 -0.24032 0.92910999
0.094301999 -0.24027 0.92891002
0.095872998 -0.24027 0.92891002
0.097442001 -0.24027 0.9289
0.099004 -0.24025001 0.92883003
-0.0094656004 -0.24184 0.94116998
-0.0078637004 -0.24151 0.93988001
-0.0062680999 -0.24126001 0.93888998
-0.0046711001 -0.24075 0.93691999
-0.0030799001 -0.24018 0.93469
-0.0014959 -0.23957001 0.93234003
8.0081998e-05 -0.23913001 0.93063003
0.0016508 -0.23876999 0.92921001
0.0032190999 -0.23857 0.92844999
0.0047860998 -0.23844001 0.92794001
0.016867001 -0.23198999 0.90284002
0.018394001 -0.23199999 0.90284997
0.019919001 -0.23198999 0.90280998
0.054680001 -0.23054001 0.89718002
0.056175999 -0.23046 0.89686
0.057665002 -0.23035 0.89644003
0.059175 -0.23033001 0.89635998
0.060683999 -0.23029999 0.89626002
0.062213998 -0.23036 0.89647001
0.063782997 -0.23055001 0.89723003
0.065389 -0.23086999 0.89845997
0.066992 -0.23116 0.89958
0.068657003 -0.23164 0.90147001
0.070276998 -0.23196 0.90270001
0.071888 -0.23222999 0.90377003
0.091926999 -0.23661999 0.92084998
0.093855999 -0.23756 0.92451
0.095686004 -0.23823 0.9271
0.097453997 -0.23872 0.92901999
0.099025004 -0.23872 0.92901999
-0.0078621004 -0.23987 0.93968999
-0.0062687998 -0.23969001 0.93899
-0.0046734 -0.23928 0.93738002
-0.0030815001 -0.23872 0.93516999
-0.0014972 -0.23819 0.93312001
8.0145997e-05 -0.23776001 0.93144
0.0016524 -0.23741999 0.93009001
0.0032213 -0.23717 0.92910999
0.019902 -0.23026 0.90205002
0.053087998 -0.2287 0.89592999
0.054581001 -0.22860999 0.89556998
0.056078002 -0.22854 0.89529002
0.057560001 -0.22841001 0.89480001
0.059055999 -0.22835 0.89454001
0.060543999 -0.22826 0.89419001
0.062056001 -0.22826 0.89419001
0.063606001 -0.22840001 0.89473999
0.065187 -0.22863001 0.89567
0.066753998 -0.22882 0.89639002
0.068368003 -0.22915 0.89767998
0.069920003 -0.22926 0.89811999
-0.0078653004 -0.23837 0.94006997
-0.0062720999 -0.23823 0.93949002
-0.0046752999 -0.23779 0.93776
-0.0030825001 -0.23721001 0.93548
-0.0014977 -0.23669 0.93344998
8.0188001e-05 -0.23630001 0.93189001
0.0016531 -0.23593999 0.93049002
0.055984002 -0.22664 0.89380002
0.057471 -0.22655 0.89341998
0.058959 -0.22645999 0.89306998
0.060437001 -0.22634 0.89261001
0.061933 -0.22629 0.89241999
0.063459001 -0.22634999 0.89266998
0.065002002 -0.22646999 0.89313
0.066528998 -0.22653 0.89336997
0.068077996 -0.22666 0.89387
0.069582999 -0.22664 0.89379001
-0.0014982 -0.23519 0.93378001
8.0215003e-05 -0.23480999 0.93225998
0.055916999 -0.22485 0.89271998
0.057399001 -0.22475 0.89231002
0.058899 -0.22472 0.89218003
0.060378999 -0.22461 0.89174998
0.061857 -0.2245 0.89133
0.063345 -0.22443999 0.89105999
0.064851001 -0.22443999 0.89107001
0.066339999 -0.22438 0.89082003
0.067818001 -0.22428 0.89046001
0.069300003 -0.22420999 0.89016002
0.070770003 -0.22409999 0.88972002
0.083407998 -0.22319999 0.88023001
0.082101002 -0.22220001 0.88217998
0.083425 -0.22175001 0.88041002
0.085317001 -0.22431 0.88459998
0.084980004 -0.22193 0.88111001
0.087412 -0.22586 0.89069998
0.086769 -0.2227 0.88415003
0.057376999 -0.22315 0.89196002
0.058862001 -0.22306 0.89161003
0.060332 -0.22292 0.89104998
0.061795998 -0.22277001 0.89046001
0.063258998 -0.22262 0.88985002
0.064753003 -0.22259 0.88972002
0.066243 -0.22254001 0.88951999
0.067722 -0.22246 0.88919997
0.069218002 -0.22244 0.88911003
0.070721 -0.22244 0.88910002
0.072236001 -0.22397999 0.88924998
0.072210997 -0.22239999 0.88893998
0.073693998 -0.22384 0.88871002
0.073675998 -0.22228 0.88849002
0.075181 -0.2238 0.88853002
0.075156003 -0.22222 0.88823003
0.076585002 -0.22201 0.88739002
0.07801 -0.22329 0.88652998
0.077979997 -0.22171 0.88619
0.079379 -0.22293 0.88507998
0.079351 -0.22135 0.88476998
0.080755003 -0.2226 0.88376999
0.080738001 -0.22105999 0.88358998
0.082091004 -0.22068 0.88207
0.083425999 -0.22025999 0.88042003
0.08478 -0.21991999 0.87902999
0.086328 -0.22007 0.87965
0.088592 -0.22352 0.88744003
0.087895997 -0.22026999 0.88046998
0.027905 -0.22877 0.91443002
0.026354 -0.22872999 0.91425002
0.02637 -0.22732 0.91481
0.027914001 -0.2273 0.91474003
0.029446 -0.22874001 0.91428
0.029448999 -0.22721 0.91439003
0.030999999 -0.2288 0.91452003
0.030994 -0.22721 0.91437
0.032545 -0.22724 0.9145
0.03571 -0.22926 0.91636997
0.034097999 -0.22729 0.91469002
0.035661999 -0.2274 0.91513997
0.037220001 -0.22747 0.91542
0.038823999 -0.22935 0.91676003
0.038770001 -0.22747999 0.91547
0.040357001 -0.22926 0.91636997
0.040304001 -0.2274 0.91516
0.058828 -0.22142 0.89108998
0.060295001 -0.22127999 0.89051002
0.061758 -0.22113 0.88990998
0.063207999 -0.22093999 0.88913
0.064696997 -0.22089 0.88894999
0.066191003 -0.22086 0.88883001
0.067681998 -0.22081999 0.88867003
0.069192 -0.22085001 0.88876998
0.070713997 -0.22091 0.88901001
0.072209999 -0.22089 0.88893998
0.073679 -0.22078 0.88852
0.075148001 -0.22069 0.88813001
0.076568 -0.22045 0.88717997
0.077959999 -0.22014999 0.88595998
0.079331003 -0.2198 0.88454998
0.080729999 -0.21953 0.88349003
0.082091004 -0.21918 0.88207
0.083439998 -0.21881001 0.88056999
0.084795997 -0.21847001 0.87919998
0.086148001 -0.21813001 0.87783003
0.087506004 -0.21781 0.87655997
0.089501001 -0.22056 0.88161999
0.088891 -0.21757001 0.87559998
0.091132 -0.2209 0.88297999
0.090290003 -0.21738 0.87481999
0.092758998 -0.22122 0.88426
0.095443003 -0.22052 0.88143998
0.093111999 -0.21706 0.87355
0.09454 -0.21695 0.87309998
0.096669003 -0.21991999 0.87904
0.095978998 -0.21686999 0.87276
0.097917996 -0.21938001 0.87690997
0.097464003 -0.21689001 0.87285
0.02486 -0.2261 0.91615999
0.026391 -0.22595 0.91556001
0.027928 -0.22586 0.9152
0.029456001 -0.22571 0.91460001
0.030997001 -0.22567999 0.91444999
0.032538 -0.22564 0.91430998
0.034079999 -0.22562 0.91421002
0.035638001 -0.22570001 0.91452998
0.037193 -0.22575 0.91474998
0.038736001 -0.22573 0.91468
0.040274002 -0.22567999 0.91447997
0.041829001 -0.22573 0.91469002
0.060284 -0.21973 0.89034998
0.061751999 -0.21960001 0.88981003
0.063198999 -0.2194 0.88902003
0.064694002 -0.21936999 0.88889998
0.066200003 -0.21938001 0.88894999
0.067694999 -0.21935999 0.88884002
0.069202997 -0.21936999 0.88891
0.070719004 -0.21941 0.88906997
0.072205998 -0.21936999 0.88888001
0.073657997 -0.21921 0.88827002
0.075106002 -0.21906 0.88762999
0.076526001 -0.21883 0.88669997
0.077927001 -0.21856 0.88559002
0.079301998 -0.21822 0.88423002
0.080696002 -0.21794 0.88312
0.082071997 -0.21764 0.88186997
0.083437003 -0.21731 0.88054001
0.084794998 -0.21697 0.87919003
0.086156003 -0.21665999 0.87791002
0.087514997 -0.21635 0.87665999
0.088907003 -0.21613 0.87576997
0.090306997 -0.21594 0.87498999
0.091693997 -0.2172 0.87410998
0.091721997 -0.21579 0.87436998
0.093148999 -0.21567 0.8739
0.094586 -0.21558 0.87352002
0.096024998 -0.21549 0.87317997
0.097510003 -0.21551 0.87326002
0.10009 -0.21941 0.88297999
0.099017002 -0.21558 0.87352997
0.02334 -0.22482 0.91729999
0.024883 -0.22475 0.91701001
0.026419001 -0.22463 0.91650999
0.027949 -0.22447 0.91587001
0.029472999 -0.22429 0.91513002
0.031008 -0.22420999 0.91478002
0.032529999 -0.22404 0.91408998
0.034061 -0.22394 0.91369998
0.035608999 -0.22396 0.91378999
0.037158001 -0.22398999 0.91390002
0.038699999 -0.22397 0.91381001
0.040254999 -0.22403 0.91404998
0.041813999 -0.22409999 0.91435999
0.043347001 -0.22404 0.91408998
0.044860002 -0.22542 0.91342002
0.044881001 -0.22397999 0.91385001
0.046390999 -0.22536001 0.91316998
0.046410002 -0.22390001 0.91354001
0.047917001 -0.22527 0.91281998
0.047929 -0.22378001 0.91306001
0.049423002 -0.22510999 0.91214001
0.049433999 -0.22361 0.91233999
0.061827999 -0.21836001 0.89091998
0.063277997 -0.21816 0.89012003
0.064781003 -0.21816 0.89008999
0.066249996 -0.21804 0.88962001
0.067748003 -0.21802001 0.88953
0.069255002 -0.21803001 0.88958001
0.070765004 -0.21805 0.88964999
0.072237 -0.21795 0.88925999
0.073666997 -0.21774 0.88836998
0.075098 -0.21753 0.88753998
0.076503001 -0.21726 0.88643998
0.077903003 -0.21698999 0.88532001
0.079278998 -0.21664999 0.88396001
0.080679998 -0.2164 0.88293999
0.082064003 -0.21612 0.88178003
0.083443999 -0.21583 0.88060999
0.084803998 -0.21551 0.87927997
0.086172998 -0.21521001 0.87808001
0.087540001 -0.21493 0.87690997
0.088941 -0.21472999 0.8761
0.090342999 -0.21454 0.87532997
0.091766998 -0.21441001 0.87480003
0.093197003 -0.21430001 0.87435001
0.094635002 -0.21421 0.87396997
0.096074998 -0.21412 0.87362999
0.097561002 -0.21414 0.87370998
0.099059001 -0.21419001 0.8739
0.10166 -0.21807 0.88363999
0.10055 -0.21422 0.87401998
0.021828 -0.22366001 0.91891998
0.023353999 -0.2234 0.91785002
0.024892 -0.22328 0.91734999
0.026426001 -0.22314 0.91677999
0.027956 -0.22297999 0.91610998
0.029479999 -0.22279 0.91535002
0.031012001 -0.22268 0.91488999
0.032534 -0.22251 0.91418999
0.034062002 -0.22239999 0.91372001
0.035602 -0.22237 0.91362
0.037147 -0.22238 0.91363001
0.038688999 -0.22236 0.91355002
0.040243998 -0.22242001 0.91378999
0.041809998 -0.22253001 0.91426998
0.04335 -0.2225 0.91415
0.044891998 -0.22248 0.91407001
0.046424001 -0.22242001 0.91381001
0.047947999 -0.22232001 0.91342002
0.049458001 -0.22217 0.91279
0.050997 -0.22215 0.91272002
0.063537002 -0.21754 0.89376003
0.064972997 -0.21729 0.89273
0.066395998 -0.21701001 0.89157999
0.067873001 -0.21691 0.89117998
0.069353998 -0.21683 0.89085001
0.070836 -0.21675999 0.89055002
0.072293997 -0.21662 0.88995999
0.073716 -0.21638 0.88897002
0.075126998 -0.21611001 0.88788003
0.076523997 -0.21582 0.88668001
0.077917002 -0.21551999 0.88546997
0.079286002 -0.21517999 0.88405001
0.080681004 -0.21491 0.88296002
0.082074001 -0.21465001 0.88187999
0.083462998 -0.21438999 0.88081002
0.084839001 -0.2141 0.87963003
0.086217999 -0.21383999 0.87853998
0.087594002 -0.21357 0.87743998
0.088993996 -0.21337 0.87663001
0.090405002 -0.2132 0.87594002
0.091831997 -0.21308 0.87541997
0.093264997 -0.21297 0.87497997
0.094705001 -0.21288 0.87462002
0.096146002 -0.2128 0.87427998
0.097613998 -0.21278 0.87418997
0.099094003 -0.21278 0.87421
0.10058 -0.21280999 0.87431002
0.10322 -0.21671 0.88419998
0.10208 -0.21285 0.87448001
0.020305 -0.22244 0.92030001
0.021838 -0.22221 0.91935003
0.023367001 -0.22197001 0.91835999
0.024904 -0.22183 0.91777998
0.026443001 -0.22172 0.91733998
0.027973 -0.22157 0.91667998
0.029499 -0.22138999 0.91592997
0.031032 -0.22127999 0.91548002
0.032554999 -0.22111 0.91478997
0.034077998 -0.22095001 0.91413999
0.035615999 -0.22091 0.91395003
0.037156999 -0.22088 0.91386002
0.038694002 -0.22084001 0.91368997
0.040251002 -0.22091 0.91395003
0.041816998 -0.22102 0.91442001
0.043361999 -0.22101 0.91439998
0.044913001 -0.22104 0.9145
0.046456002 -0.22102 0.91443002
0.047982998 -0.22093999 0.91408998
0.0495 -0.22081 0.91355997
0.05105 -0.22082999 0.91365999
0.052545 -0.22217 0.91280001
0.052604001 -0.22088 0.91382998
0.062576003 -0.21794 0.90169001
0.063865997 -0.21715 0.89840001
0.065223999 -0.21661 0.89618999
0.066592999 -0.21614 0.89421999
0.068028003 -0.21589001 0.89322001
0.069473997 -0.21569 0.89239001
0.070914999 -0.21549 0.89153999
0.072353996 -0.21529 0.89069998
0.073769003 -0.21502 0.88960999
0.075166002 -0.21472 0.88834
0.076549001 -0.21438 0.88696998
0.077940002 -0.21409 0.88573998
0.079301998 -0.21371999 0.88423002
0.080691002 -0.21344 0.88306999
0.082091004 -0.2132 0.88207
0.083497003 -0.21298 0.88116997
0.084875003 -0.21269999 0.88002002
0.086264998 -0.21246 0.87901998
0.087658003 -0.21224 0.87809002
0.089069001 -0.21206 0.87735999
0.090473004 -0.21188 0.87659001
0.091908999 -0.21177 0.87616003
0.093350001 -0.21168 0.87577999
0.094792001 -0.21159001 0.87541997
0.096225001 -0.21149001 0.875
0.097693004 -0.21146999 0.87489998
0.099161997 -0.21145 0.87480998
0.10064 -0.21145 0.87480998
0.10212 -0.21145 0.87481999
0.10358 -0.21289 0.87465
0.10362 -0.21149001 0.87497997
0.017239001 -0.22303 0.92273998
0.015705001 -0.22183999 0.92427999
0.017246 -0.22156 0.92313999
0.018773001 -0.22273 0.92148
0.018781999 -0.22126 0.92189997
0.020315001 -0.22099 0.92078
0.021849999 -0.22077 0.91984999
0.023383001 -0.22057 0.91900003
0.02492 -0.22042 0.91838998
0.026461 -0.22033 0.91799003
0.027997 -0.22019 0.91744
0.029526999 -0.22003999 0.91680002
0.031061999 -0.21994001 0.91636997
0.032590002 -0.21979 0.91576999
0.034111001 -0.21961001 0.91503
0.035643 -0.21952 0.91465002
0.037181001 -0.21947999 0.91444999
0.038715001 -0.21941 0.91417003
0.040268 -0.21945 0.91434002
0.041836001 -0.21957 0.91482002
0.043389998 -0.21960001 0.91497999
0.044946998 -0.21965 0.91518998
0.046500999 -0.21968 0.91531998
0.048032001 -0.21961001 0.91501999
0.049552999 -0.21950001 0.91455001
0.051104002 -0.21952 0.91463
0.052657999 -0.21955 0.91475999
0.054217 -0.21960001 0.91496998
0.061597999 -0.21834999 0.90977001
0.062863998 -0.21741 0.90583998
0.064150997 -0.21659 0.90240997
0.065470003 -0.2159 0.89955997
0.066785 -0.21524 0.89679998
0.068178996 -0.21486001 0.89520001
0.069590002 -0.21454 0.89388001
0.070997998 -0.21423 0.89257997
0.072415002 -0.21396001 0.89144999
0.073817998 -0.21365 0.89020002
0.075202003 -0.21331 0.88876998
0.076576002 -0.21296 0.88729
0.077959001 -0.21264 0.88595998
0.079310998 -0.21224999 0.88432997
0.080698997 -0.21197 0.88316
0.082099997 -0.21173 0.88217002
0.083513997 -0.21153 0.88135999
0.084911004 -0.2113 0.88038999
0.086319 -0.2111 0.87957001
0.087724 -0.21091001 0.87875003
0.089137003 -0.21073 0.87803
0.090531997 -0.21053 0.87717003
0.091959 -0.2104 0.87663001
0.093400002 -0.21031 0.87625003
0.094843 -0.21021999 0.87589002
0.096285 -0.21014 0.87554002
0.097753003 -0.21010999 0.87542999
0.099211 -0.21007 0.87524003
0.10067 -0.21002001 0.87506002
0.10214 -0.20999999 0.87497997
0.10364 -0.21004 0.87515002
0.10632 -0.21393999 0.88514
0.10517 -0.21015 0.87558001
0.0095063001 -0.22305 0.92931998
0.0079512997 -0.22192 0.93120003
0.0095151002 -0.22167 0.93018001
0.01107 -0.22133 0.92873001
0.014159 -0.2221 0.92536998
0.012624 -0.22104 0.92752999
0.014169 -0.22068 0.92601001
0.015714999 -0.22041 0.92488003
0.017255001 -0.22011 0.92360997
0.018790999 -0.21981999 0.92237997
0.020326 -0.21955 0.92127001
0.02186 -0.21932 0.92028999
0.023394 -0.21911 0.91940999
0.024932001 -0.21896 0.9188
0.026473001 -0.21887 0.91839999
0.028013 -0.21876 0.91797
0.029549999 -0.21866 0.91750997
0.031087 -0.21855 0.91709
0.032618999 -0.21843 0.91658002
0.034143001 -0.21827 0.91591001
0.035673 -0.21816 0.91543001
0.037207998 -0.21808 0.91510999
0.038741998 -0.21800999 0.91481
0.040291999 -0.21803001 0.91487998
0.041855998 -0.21811999 0.91527998
0.043416001 -0.21819 0.91553998
0.044983 -0.21828 0.91592997
0.046549998 -0.21836001 0.91628999
0.048094001 -0.21833999 0.91619998
0.049624 -0.21826001 0.91584998
0.051173002 -0.21826001 0.91587001
0.052717999 -0.21825001 0.91580999
0.054265 -0.21823999 0.91579002
0.055785999 -0.21969 0.91534001
0.055819001 -0.21827 0.91587001
0.057351001 -0.21975 0.91561002
0.057356998 -0.21822999 0.91571999
0.058858 -0.21960001 0.91497999
0.058866002 -0.21808 0.91510999
0.060314 -0.21927001 0.91360998
0.060320999 -0.21775 0.91372001
0.061696 -0.21715 0.91121
0.063023999 -0.21641999 0.90815002
0.064346999 -0.21571 0.90517002
0.065664001 -0.21501 0.90223002
0.066973001 -0.21432 0.89933002
0.068328999 -0.21381 0.89717001
0.069706999 -0.21337999 0.89538002
0.071087003 -0.21298 0.8937
0.072476998 -0.21263 0.89222002
0.073858 -0.21225999 0.89068002
0.075227 -0.21188 0.88906002
0.076586999 -0.21148001 0.88740999
0.077954002 -0.21111999 0.88590002
0.079304002 -0.21073 0.88424999
0.080691002 -0.21044999 0.88305998
0.082091004 -0.21021 0.88207
0.083507001 -0.21002001 0.88126999
0.084919997 -0.20983 0.88047999
0.086354002 -0.2097 0.87992001
0.087778002 -0.20954999 0.87928998
0.089202002 -0.2094 0.87866998
0.090605997 -0.20920999 0.87787998
0.092030004 -0.20907 0.87730998
0.093443997 -0.20892 0.87665999
0.09488 -0.20882 0.87624002
0.096316002 -0.20872 0.87582999
0.097785003 -0.2087 0.87572002
0.099242002 -0.20864999 0.87550998
0.10071 -0.20862 0.87540001
0.10218 -0.2086 0.87532002
0.1037 -0.20868 0.87566
0.10524 -0.20881 0.87620002
0.0063907998 -0.22081 0.9332
0.0079562999 -0.22048 0.93177998
0.0095191002 -0.22019 0.93055999
0.011076 -0.21986 0.92917001
0.012629 -0.21956 0.92791998
0.014179 -0.21927001 0.92667001
0.015728001 -0.21901999 0.92562997
0.017269 -0.21872 0.92434001
0.018805001 -0.21841 0.92303997
0.020338999 -0.21813001 0.92185003
0.021873999 -0.21789999 0.92088002
0.023411 -0.21771 0.92009002
0.024953 -0.21759 0.91959
0.026498999 -0.21752 0.91929001
0.028042 -0.21743999 0.91894001
0.029580999 -0.21732999 0.91847003
0.031119 -0.21723001 0.91806
0.032650001 -0.21709 0.91745001
0.034171999 -0.21690001 0.91667998
0.035698999 -0.21676999 0.91610003
0.037227999 -0.21664999 0.9156
0.038755 -0.21653 0.91510999
0.040300999 -0.21653 0.91508001
0.041861001 -0.2166 0.91538
0.043425001 -0.21668001 0.91573
0.045001999 -0.21682 0.91632003
0.046585001 -0.21697 0.91698003
0.048145998 -0.21702 0.91719002
0.049693 -0.21701001 0.91711998
0.051240999 -0.21699999 0.91709
0.052779999 -0.21695 0.91687
0.054318 -0.21690001 0.91667002
0.055856999 -0.21686 0.91649997
0.057378002 -0.21675 0.91605002
0.058883 -0.21659 0.91535997
0.060346 -0.21629 0.91409999
0.061763 -0.21584 0.91219002
0.063138001 -0.21527 0.90978998
0.064489998 -0.21465001 0.90717
0.065814003 -0.21397001 0.90429002
0.067138001 -0.21332 0.90153998
0.068470001 -0.21272001 0.89902002
0.069808997 -0.21217 0.89669001
0.071161002 -0.21168999 0.89464003
0.072521999 -0.21125001 0.89278001
0.073886 -0.21083 0.89102
0.075239003 -0.2104 0.88920999
0.076591 -0.20998999 0.88745999
0.077950999 -0.20961 0.88586003
0.079301998 -0.20922001 0.88422
0.080688 -0.20894 0.88303
0.082088999 -0.20871 0.88204998
0.083503999 -0.20852 0.88125002
0.084925003 -0.20835 0.88053
0.086368002 -0.20824 0.88006997
0.087805003 -0.20812 0.87954998
0.089239001 -0.208 0.87904
0.090659 -0.20784999 0.87840003
0.092090003 -0.20772 0.87787998
0.093514003 -0.20759 0.87731999
0.094959997 -0.20750999 0.87698001
0.096391 -0.20739999 0.87650001
0.097851001 -0.20735 0.87632
0.099299997 -0.20728 0.87603003
0.10076 -0.20724 0.87584001
0.10223 -0.20722 0.87576997
0.10377 -0.20735 0.87629002
0.10534 -0.20751999 0.87700999
0.10803 -0.21135999 0.88691998
0.10693 -0.20771 0.87783998
0.0048217 -0.21962 0.93484998
0.0063943001 -0.21935 0.93370998
0.0079605998 -0.21901999 0.93228
0.0095226001 -0.21868999 0.93090999
0.011082 -0.21841 0.92969
0.012638 -0.21813001 0.92852002
0.014191 -0.21788 0.92747003
0.015742 -0.21765 0.92645001
0.017283 -0.21732999 0.92512
0.018820001 -0.21702 0.92381001
0.020354001 -0.21673 0.92254001
0.021891 -0.2165 0.92157
0.023430999 -0.21634001 0.92088002
0.024977 -0.21624 0.92047
0.026524 -0.21617 0.92018002
0.028069001 -0.21608999 0.91982001
0.029609 -0.21597999 0.91934001
0.031149 -0.21588001 0.91891998
0.032680001 -0.21573 0.91829997
0.034201 -0.21552999 0.91746002
0.035728998 -0.21539 0.91687
0.037255 -0.21526 0.91627997
0.038779002 -0.21512 0.91569
0.040325001 -0.21511 0.91565001
0.041887 -0.21517 0.91593999
0.043455999 -0.21528 0.91636997
0.045039002 -0.21544001 0.91706997
0.046627998 -0.21562 0.91782999
0.048191998 -0.21568 0.91807002
0.049745999 -0.21568 0.91808999
0.051295999 -0.21568 0.91807002
0.052829999 -0.2156 0.91775
0.054364 -0.21552999 0.91745001
0.055897001 -0.21546 0.91716999
0.057406999 -0.21531001 0.91650999
0.058901001 -0.21511 0.91565001
0.060364 -0.2148 0.91435999
0.061792001 -0.21439999 0.91263002
0.063193999 -0.21392 0.91060001
0.064576998 -0.21340001 0.9084
0.065926 -0.2128 0.90583003
0.067264996 -0.21219 0.90324003
0.068584003 -0.21155 0.90051001
0.069894001 -0.21091001 0.89779001
0.071218997 -0.21033999 0.89537001
0.072550997 -0.20982 0.89313
0.073885001 -0.20931999 0.89100999
0.075220004 -0.20884 0.88898998
0.076563999 -0.20840999 0.88713998
0.077917002 -0.20802 0.88547999
0.079277001 -0.20766 0.88395
0.080670998 -0.20739999 0.88284999
0.082073003 -0.20716999 0.88187999
0.083486997 -0.20698 0.88107002
0.084913999 -0.20682999 0.88042003
0.086374 -0.20676 0.88011998
0.087820999 -0.20667 0.87971002
0.089275002 -0.20659 0.87939
0.090705 -0.20646 0.87884998
0.092147 -0.20636 0.87843001
0.093572997 -0.20623 0.87787998
0.095030002 -0.20616999 0.87761998
0.09646 -0.20606001 0.87712997
0.097929999 -0.20603 0.87702
0.099379003 -0.20596001 0.87673002
0.10083 -0.2059 0.87647998
0.10231 -0.20589 0.87642002
0.10386 -0.20603 0.87702
0.10543 -0.2062 0.87774003
0.10703 -0.20642 0.87866998
0.0032468999 -0.21841 0.93646997
0.0048257001 -0.21822 0.93563002
0.0064001 -0.21797 0.93456
0.0079678996 -0.21763 0.93313003
0.0095308004 -0.2173 0.93171
0.01109 -0.21698999 0.93039
0.012647 -0.21672 0.92921001
0.014202 -0.21647 0.92815
0.015752999 -0.21623001 0.92714
0.017294999 -0.21591 0.92574
0.018835001 -0.21562 0.92451
0.020370999 -0.21534 0.92332
0.021909 -0.21512 0.92236
0.023451 -0.21495999 0.92167002
0.024998 -0.21487001 0.92127001
0.026544999 -0.21478 0.92088997
0.028091 -0.21469 0.92052001
0.029634001 -0.2146 0.92013001
0.031175001 -0.2145 0.91970003
0.032708999 -0.21436 0.91909999
0.034233999 -0.21417999 0.91833001
0.03576 -0.21402 0.91764998
0.037283 -0.21386001 0.91697001
0.038803998 -0.2137 0.91627997
0.040351 -0.21369 0.91623002
0.041909002 -0.21374001 0.91643
0.043478999 -0.21383999 0.91687
0.045063999 -0.214 0.91756999
0.046654001 -0.21417999 0.91834003
0.048218001 -0.21423 0.91856003
0.049772002 -0.21424 0.91858
0.051318999 -0.21422 0.91847998
0.052848998 -0.21412 0.91807997
0.054377001 -0.21403 0.91768003
0.055904999 -0.21393999 0.91728002
0.057409 -0.21376 0.91654003
0.058906998 -0.21358 0.91574001
0.060382001 -0.21332 0.91463
0.061827999 -0.21298 0.91316003
0.063265003 -0.21261001 0.91161001
0.064677998 -0.21219 0.90981001
0.066051997 -0.21167 0.90755999
0.067394003 -0.21107 0.90498
0.068705 -0.2104 0.90210998
0.069986999 -0.20967001 0.89898002
0.071282998 -0.20901 0.89617002
0.072580002 -0.20838 0.89348
0.073884003 -0.20781 0.89099997
0.075195998 -0.20727 0.88870001
0.076523997 -0.2068 0.88666999
0.077869996 -0.20638999 0.88494003
0.079237998 -0.20606001 0.88350999
0.080649003 -0.20585001 0.88261002
0.082051001 -0.20562001 0.88164002
0.083463997 -0.20543 0.88081998
0.084896997 -0.2053 0.88024002
0.086356997 -0.20523 0.87994999
0.087803997 -0.20513999 0.87954998
0.089267999 -0.20508 0.87932003
0.090726003 -0.20502 0.87905002
0.092180997 -0.20495 0.87875003
0.093620002 -0.20485 0.87831002
0.095086001 -0.20480999 0.87813997
0.096515998 -0.20468999 0.87764001
0.097984001 -0.20466 0.87751001
0.099432997 -0.20458999 0.87720001
0.10089 -0.20453 0.87695003
0.10237 -0.20453 0.87696999
0.10394 -0.20468999 0.87765002
0.1055 -0.20485 0.87831002
0.10709 -0.20506001 0.87922001
0.0048305001 -0.21684 0.93655002
0.0064061 -0.21658 0.93542999
0.0079762004 -0.21628 0.93412
0.0095386002 -0.2159 0.93247002
0.011099 -0.21559 0.93115002
0.012656 -0.21529999 0.92989999
0.014214 -0.21507999 0.92892998
0.015767001 -0.21484999 0.92793
0.017310999 -0.21454 0.92662001
0.018852999 -0.21426 0.92540002
0.020393001 -0.21401 0.92431003
0.021933001 -0.21378 0.92334002
0.023476001 -0.21362001 0.92264998
0.025022 -0.21351001 0.92215002
0.02657 -0.21342 0.92176002
0.028114 -0.21331 0.92129999
0.029658999 -0.21322 0.92091
0.031202 -0.21312 0.92049003
0.032740001 -0.21301 0.91999
0.034267001 -0.21283001 0.91922998
0.035797998 -0.21269 0.91863
0.037322 -0.21253 0.91793001
0.038844999 -0.21236999 0.91723001
0.04039 -0.21234 0.91711003
0.041946001 -0.21236999 0.91723001
0.043513 -0.21245 0.91758001
0.045093 -0.21258999 0.91817999
0.046675 -0.21272001 0.91873997
0.048238002 -0.21277 0.91894001
0.049787 -0.21275 0.91886002
0.051329002 -0.21269999 0.91865999
0.052854002 -0.21258999 0.91816998
0.054388002 -0.21251 0.91785002
0.055909999 -0.2124 0.91737002
0.05742 -0.21224999 0.91671997
0.058924001 -0.21209 0.91601002
0.060412001 -0.21188 0.91509998
0.061879002 -0.21160001 0.91390997
0.063357003 -0.21138 0.91294998
0.064808004 -0.21108 0.91165
0.066206999 -0.21062 0.90969002
0.067552 -0.21002001 0.90710002
0.068843 -0.20929 0.90390998
0.070096001 -0.20847 0.90038002
0.071350001 -0.20769 0.89701003
0.072604001 -0.20694 0.89379001
0.073879004 -0.20627999 0.89093
0.075172998 -0.2057 0.88841999
0.076476999 -0.20517001 0.88613999
0.077822998 -0.20477 0.88441002
0.079205997 -0.20448001 0.88314998
0.080623999 -0.20429 0.88234001
0.082033999 -0.20409 0.88146001
0.083454996 -0.20392001 0.88072997
0.084889002 -0.20378999 0.88015997
0.086349003 -0.20372 0.87987
0.087803997 -0.20364 0.87954998
0.089285001 -0.20363 0.87949002
0.090760998 -0.20361 0.87939
0.092237003 -0.20358001 0.87927997
0.093688004 -0.20351 0.87895
0.095155999 -0.20347001 0.87878001
0.096584998 -0.20334999 0.87826997
0.098053999 -0.20332 0.87813002
0.099505 -0.20325001 0.87783003
0.10097 -0.20321 0.87765998
0.10246 -0.20322999 0.87774998
0.10402 -0.20336001 0.87834001
0.10557 -0.2035 0.87889999
0.10716 -0.20369001 0.87974
0.10869 -0.20527001 0.88012999
0.10876 -0.20389999 0.88064998
0.11025 -0.2054 0.88068002
0.11032 -0.20404001 0.88128
0.0032533 -0.21566001 0.93831998
0.0048352 -0.21547 0.93747002
0.0064125 -0.21522 0.93638003
0.0079832003 -0.21488 0.93493003
0.0095458999 -0.21448 0.93318999
0.011108 -0.21417999 0.93186998
0.012666 -0.21389 0.93062001
0.014224 -0.21366 0.92962998
0.015779 -0.21343 0.92862999
0.017325999 -0.21315999 0.92742002
0.018871 -0.2129 0.92632002
0.020415001 -0.21267 0.92531002
0.021958999 -0.21247 0.92443001
0.023504 -0.21231 0.92374003
0.025051 -0.21219 0.92321998
0.0266 -0.2121 0.92281002
0.028146001 -0.21199 0.92233998
0.029693 -0.2119 0.92196
0.031238001 -0.21180999 0.92155999
0.032779001 -0.21170001 0.92107999
0.034304999 -0.2115 0.92022997
0.035833001 -0.21134 0.91952002
0.037354998 -0.21116 0.91873002
0.038878001 -0.211 0.91803002
0.040421002 -0.21095 0.91782999
0.041978002 -0.21098 0.91794002
0.043545999 -0.21105 0.91826999
0.045116998 -0.21114001 0.91867
0.046689 -0.21122999 0.91904002
0.048248 -0.21125001 0.91913003
0.049796 -0.21122999 0.91903001
0.051337998 -0.21118 0.91882002
0.052868001 -0.21108 0.91839999
0.054407001 -0.21103001 0.91817999
0.055936001 -0.21095 0.91780001
0.057459 -0.21084 0.91733998
0.058967002 -0.21069001 0.91667002
0.060469002 -0.21052 0.91596001
0.061953001 -0.2103 0.91500998
0.063454002 -0.21015 0.91434002
0.064929001 -0.20992 0.91334999
0.066358 -0.20956001 0.91175997
0.067705996 -0.20896 0.90916997
0.069003999 -0.20824 0.90603
0.070216998 -0.20730001 0.90193999
0.071420997 -0.20637 0.89789999
0.072630003 -0.20550001 0.89410001
0.073872 -0.20475 0.89085001
0.075129002 -0.20407 0.88791001
0.076436996 -0.20355999 0.88567001
0.07779 -0.20318 0.88402998
0.079172 -0.20290001 0.88277
0.080591001 -0.20271 0.88196999
0.082007997 -0.20253 0.88117999
0.083437003 -0.20238 0.88054001
0.084863998 -0.20224001 0.87989998
0.086323999 -0.20217 0.87962002
0.087785996 -0.20211001 0.87936997
0.089273997 -0.20211001 0.87937999
0.09076 -0.20211001 0.87937999
0.092253998 -0.20213 0.87945002
0.093723997 -0.20209 0.87927997
0.095192 -0.20205 0.87910998
0.09663 -0.20195 0.87867999
0.098100998 -0.20192 0.87854999
0.099545002 -0.20184 0.87818998
0.101 -0.20179 0.87795001
0.1025 -0.20182 0.87810999
0.10404 -0.20192 0.87853003
0.10558 -0.20203 0.87901002
0.10717 -0.20221999 0.87983
0.10878 -0.20243999 0.88081002
0.11035 -0.20259 0.88146001
0.0048433999 -0.21424 0.93905002
0.0064225001 -0.21396001 0.93782997
0.0079937996 -0.21358 0.93616998
0.0095573999 -0.21315999 0.93431002
0.011119 -0.21280999 0.93279999
0.012677 -0.21250001 0.93142998
0.014235 -0.21224999 0.93033999
0.015791001 -0.21201999 0.92931998
0.017340999 -0.21177 0.92821997
0.018890001 -0.21154 0.92721999
0.020438001 -0.21134 0.92632997
0.021985 -0.21115001 0.92553997
0.023531999 -0.21099 0.92483002
0.025076 -0.21084 0.92413998
0.026624 -0.21072 0.92364001
0.028170999 -0.21061 0.92313999
0.029719001 -0.21052 0.92276001
0.031266 -0.21043 0.92237002
0.032811001 -0.21033999 0.92198002
0.034341 -0.21017 0.92122
0.035870999 -0.21001001 0.92050999
0.037397999 -0.20984 0.91978002
0.038924001 -0.20969 0.91909999
0.040465001 -0.20962 0.91881001
0.042018 -0.20962 0.91882002
0.043577 -0.20964999 0.91892999
0.045136001 -0.20967001 0.91904002
0.046698 -0.20971 0.91921997
0.048252001 -0.20971 0.91921997
0.049796 -0.20967001 0.91903001
0.051337998 -0.20962 0.91882002
0.052873001 -0.20954999 0.91850001
0.054412998 -0.2095 0.91829002
0.055948999 -0.20943999 0.91802001
0.057484999 -0.20938 0.91776001
0.059006002 -0.20927 0.91728997
0.060529999 -0.20918 0.91687
0.062040001 -0.20905 0.91628999
0.063556999 -0.20894 0.91583002
0.065059997 -0.20879 0.91518998
0.066519 -0.20852 0.91398001
0.067899004 -0.20801 0.91175997
0.069234997 -0.20739999 0.90907001
0.070419997 -0.20637 0.90454
0.071571998 -0.20528001 0.89981002
0.072719 -0.20423 0.89519
0.073890001 -0.20329 0.89105999
0.075072996 -0.20242 0.88725001
0.076389 -0.20193 0.88511002
0.077742003 -0.20156001 0.88348001
0.079131 -0.2013 0.88231999
0.08055 -0.20111001 0.88151997
0.081973001 -0.20095 0.88081002
0.083402 -0.2008 0.88016999
0.084830001 -0.20066001 0.87954998
0.086296998 -0.20062 0.87933999
0.087766998 -0.20058 0.87918001
0.089254998 -0.20058 0.87919003
0.090751 -0.2006 0.87928998
0.092253998 -0.20063999 0.87944001
0.093713999 -0.20058 0.87919998
0.095172003 -0.20051999 0.87892997
0.096625999 -0.20046 0.87865001
0.098108001 -0.20045 0.87861001
0.099558003 -0.20038 0.87830001
0.10103 -0.20034 0.87814999
0.10254 -0.20039999 0.87838
0.10405 -0.20045 0.87862998
0.10557 -0.20051999 0.87892997
0.10716 -0.20071 0.87972999
0.10878 -0.20095 0.88080001
0.11036 -0.20112 0.88155001
0.11191 -0.20273 0.88207
0.11194 -0.20129 0.88229001
0.11472 -0.20508 0.89229
0.11349 -0.20139 0.88274002
0.0032643999 -0.2132 0.94151002
0.0048504001 -0.21296 0.94042999
0.0064324001 -0.21269999 0.93927997
0.0080051003 -0.2123 0.9375
0.0095701003 -0.21185 0.93554997
0.011131 -0.21146999 0.93383998
0.012689 -0.21111999 0.93233001
0.014246 -0.21083 0.93103999
0.015802 -0.2106 0.93000001
0.017354 -0.21035001 0.92891997
0.018905999 -0.21015 0.92803001
0.02046 -0.20998999 0.92732
0.022011001 -0.20983 0.92663002
0.023560001 -0.20968001 0.92594999
0.025107 -0.20952 0.92524999
0.026656 -0.2094 0.92473
0.028201001 -0.20927 0.92414999
0.029754 -0.20919999 0.92383999
0.031302001 -0.20911001 0.92346001
0.032850001 -0.20903 0.92306
0.034380998 -0.20885 0.92228001
0.035912 -0.20869 0.92157
0.037436999 -0.2085 0.92075998
0.038965002 -0.20835 0.92008001
0.040504001 -0.20826 0.91970003
0.04205 -0.20822001 0.91951001
0.0436 -0.20819999 0.91940999
0.045148998 -0.20818 0.91930997
0.046703 -0.20817 0.91930002
0.048252001 -0.20815 0.91921997
0.049796999 -0.20811 0.91904002
0.051339 -0.20807 0.91883999
0.052880999 -0.20802 0.91864002
0.054428 -0.208 0.91852999
0.055969998 -0.20795999 0.91835999
0.057518002 -0.20794 0.91828001
0.059057999 -0.2079 0.91808999
0.060596 -0.20784999 0.91788
0.062120002 -0.20776001 0.91746998
0.063651003 -0.20769 0.91718
0.065174997 -0.20761 0.91680002
0.066656999 -0.20739999 0.91588002
0.068071999 -0.20699 0.91408998
0.069444999 -0.20648 0.91181999
0.070587002 -0.20532 0.90667999
0.071676001 -0.20405 0.90110999
0.072733998 -0.20276 0.89538002
0.073829003 -0.20161 0.89033002
0.075016998 -0.20076001 0.88657999
0.076341003 -0.20031001 0.88455999
0.077701002 -0.19995999 0.88301998
0.079099 -0.19972 0.88195997
0.080517001 -0.19954 0.88116002
0.081946 -0.19938999 0.88051999
0.083374999 -0.19925 0.87989002
0.084794998 -0.19909 0.87918001
0.086260997 -0.19904 0.87897998
0.087738 -0.19902 0.87888002
0.089226998 -0.19903 0.87892002
0.090732999 -0.19907001 0.87910998
0.092244998 -0.19913 0.87936002
0.093704998 -0.19907001 0.87910998
0.095151998 -0.19899 0.87875003
0.096614003 -0.19893999 0.87853003
0.098096997 -0.19893999 0.87851
0.099550001 -0.19887 0.87822998
0.10103 -0.19886 0.87816
0.10254 -0.19891 0.87836999
0.10404 -0.19893999 0.87853003
0.10555 -0.19899 0.87875003
0.10713 -0.19916999 0.87954998
0.10876 -0.19943 0.88068998
0.11037 -0.19964001 0.88163
0.11197 -0.19983999 0.88248003
0.11354 -0.19998001 0.88310999
0.0032694 -0.21193001 0.94296002
0.0048580002 -0.21168999 0.94189
0.0064425999 -0.21144 0.94076002
0.0080164997 -0.21100999 0.93883997
0.0095827002 -0.21054 0.93677998
0.011143 -0.21010999 0.93484998
0.0127 -0.20973 0.93313998
0.014256 -0.20941 0.93171
0.015812 -0.20915 0.93059999
0.017367 -0.20893 0.9296
0.018921999 -0.20874999 0.92881
0.020478999 -0.20862 0.92821997
0.022034001 -0.20849 0.92761999
0.023588 -0.20835 0.92703003
0.025136 -0.20819999 0.92633998
0.026687 -0.20807999 0.92581999
0.028233999 -0.20795 0.92522001
0.029785 -0.20785999 0.92483002
0.031335998 -0.20777 0.92444003
0.032885 -0.20768 0.92404997
0.034414999 -0.20749 0.92319
0.035946999 -0.20732 0.92246002
0.037473999 -0.20714 0.92164999
0.039003 -0.20699 0.92097998
0.040539 -0.20689 0.92050999
0.042082001 -0.20682 0.92019999
0.043623 -0.20675001 0.91988999
0.045162998 -0.20668 0.91959
0.046707999 -0.20664001 0.91939998
0.048252001 -0.2066 0.91921997
0.049802002 -0.20658 0.91913003
0.051350001 -0.20656 0.91904002
0.052898999 -0.20653 0.91894001
0.054451998 -0.20653 0.91892999
0.056000002 -0.20651001 0.91885
0.057553999 -0.20652001 0.91886002
0.059101 -0.20649 0.91876
0.060647 -0.20647 0.91864997
0.062180001 -0.20640001 0.91835999
0.063717999 -0.20636 0.91815001
0.065256 -0.20631 0.91794002
0.066761002 -0.20616999 0.91731
0.068223 -0.2059 0.91610998
0.069576003 -0.20532 0.91354001
0.070684001 -0.20406 0.90793997
0.071726002 -0.20266999 0.90174001
0.072718002 -0.20118999 0.89517999
0.073748998 -0.19989 0.88937002
0.074960999 -0.19911 0.88591999
0.076309003 -0.19871999 0.88419002
0.077670999 -0.19837999 0.88266999
0.079075001 -0.19815999 0.88169998
0.080477998 -0.19795001 0.88072997
0.081905998 -0.1978 0.88007998
0.083325997 -0.19764 0.87936002
0.084743999 -0.19747999 0.87865001
0.086208999 -0.19743 0.87844998
0.087701 -0.19745 0.87852001
0.089199997 -0.19747999 0.87865001
0.090714999 -0.19754 0.87893999
0.092237003 -0.19762 0.87927997
0.093695998 -0.19756 0.87902999
0.095132999 -0.19746 0.87857002
0.096602 -0.19743 0.87843001
0.098076999 -0.19741 0.87834001
0.099529997 -0.19735 0.87805998
0.10101 -0.19733 0.87797999
0.10251 -0.19736999 0.87818003
0.104 -0.19736999 0.87816
0.10551 -0.19742 0.87836999
0.10709 -0.19760001 0.87918001
0.10874 -0.1979 0.88050002
0.11037 -0.19814999 0.88161999
0.11199 -0.19837999 0.88265002
0.11358 -0.19856 0.88344997
0.0032748 -0.21067999 0.94453001
0.0048647998 -0.21039 0.94319999
0.0064504999 -0.2101 0.94191998
0.0080262003 -0.20967001 0.93996
0.0095932996 -0.20919 0.93782002
0.011154 -0.20873 0.93576002
0.012711 -0.20832001 0.93392998
0.014265 -0.20795999 0.93230999
0.015821001 -0.20769 0.93111002
0.017376 -0.20747 0.93010002
0.018933 -0.20728999 0.92931998
0.020493001 -0.20717999 0.92882001
0.022050999 -0.20706999 0.92833
0.023607999 -0.20695999 0.92783999
0.025163 -0.20685001 0.92733002
0.026718 -0.20675001 0.92690003
0.028270001 -0.20664001 0.92640001
0.029826 -0.20657 0.92610002
0.031378999 -0.20649 0.92571998
0.032926999 -0.20637999 0.92523998
0.034458 -0.20619 0.92435998
0.035989001 -0.206 0.92354
0.037512999 -0.2058 0.92263001
0.039039999 -0.20563 0.92185998
0.040569998 -0.20547999 0.92120999
0.042105 -0.20536999 0.92071998
0.043637998 -0.20525999 0.92021
0.045169 -0.20514999 0.91970998
0.046707999 -0.20508 0.91940999
0.048252001 -0.20503999 0.91921997
0.049805999 -0.20503999 0.91921997
0.05136 -0.20503999 0.91921997
0.052914001 -0.20503999 0.91921997
0.054467998 -0.20503999 0.91921997
0.056022 -0.20503999 0.91921997
0.057576001 -0.20503999 0.91921997
0.059124999 -0.20502 0.91913003
0.060672 -0.205 0.91904002
0.062213 -0.20496 0.91885
0.063753001 -0.20491 0.91864997
0.065298997 -0.20489 0.91855001
0.066826001 -0.20480999 0.91819
0.068331003 -0.20467 0.91755998
0.069657996 -0.20400999 0.91461998
0.070729002 -0.20265 0.90851003
0.072686002 -0.19959 0.89478999
0.073668003 -0.19815999 0.88839
0.074910998 -0.19747999 0.88533002
0.076286003 -0.19717 0.88393003
0.077647999 -0.19683 0.88240999
0.079052001 -0.19661 0.88143998
0.080444999 -0.19638 0.88037997
0.081872001 -0.19622999 0.87971997
0.083283 -0.19605 0.87891001
0.084701002 -0.19588999 0.87821001
0.086165003 -0.19584 0.87800002
0.087656997 -0.19586 0.87808001
0.089156002 -0.19588999 0.87822002
0.090671003 -0.19596 0.87851
0.092201002 -0.19605 0.87893999
0.093661003 -0.19599999 0.87869
0.095105998 -0.19592001 0.87831998
0.096574001 -0.19588 0.87817001
0.098048002 -0.19586 0.87807
0.099481001 -0.19576 0.87763
0.10095 -0.19572 0.87746
0.10244 -0.19574 0.87755001
0.10393 -0.19576 0.87761998
0.10544 -0.19581001 0.87783998
0.10705 -0.19603001 0.87882
0.10872 -0.19636001 0.88032001
0.11036 -0.19663 0.88152999
0.11198 -0.19686 0.88257003
0.11358 -0.19706 0.88344997
0.0032786001 -0.20933001 0.94563001
0.0048703998 -0.20903 0.94431001
0.0064568999 -0.20871 0.94286001
0.0080332998 -0.20826 0.94080001
0.0096006002 -0.20776001 0.93853998
0.011162 -0.20728 0.93638003
0.012718 -0.20685001 0.93444002
0.014273 -0.20649 0.93282002
0.015830001 -0.20622 0.93160999
0.017386001 -0.206 0.93062001
0.018943001 -0.20582999 0.92980999
0.020502999 -0.20570999 0.92931002
0.022063 -0.20561001 0.92883003
0.023623001 -0.20552 0.92843997
0.025181999 -0.20543 0.92804003
0.026742 -0.20536 0.92772001
0.028298 -0.20527001 0.92732
0.029859001 -0.20523 0.92711997
0.031417001 -0.20517001 0.92682999
0.032967001 -0.20506001 0.92636001
0.034499999 -0.20486 0.92546999
0.036031 -0.20468 0.92461997
0.037556998 -0.20446999 0.92369002
0.039078001 -0.20426001 0.92273998
0.040601 -0.20407 0.92189997
0.042132001 -0.20394 0.92128998
0.04366 -0.20379999 0.92067999
0.045182001 -0.20365 0.91999
0.046718001 -0.20355999 0.91960001
0.048266001 -0.20354 0.91948003
0.049821001 -0.20354 0.91948003
0.051371001 -0.20352 0.91940999
0.052925002 -0.20352 0.91940999
0.054478999 -0.20352 0.91939998
0.056033 -0.20352 0.91939002
0.057588 -0.20352 0.91939998
0.059147999 -0.20354 0.91948998
0.060702998 -0.20354 0.91949999
0.062251002 -0.20352 0.91940999
0.063791998 -0.20348001 0.91921997
0.065344997 -0.20348001 0.9192
0.066886999 -0.20344 0.91903001
0.068434 -0.20342 0.91894001
0.069704004 -0.2026 0.91522002
0.070753001 -0.20118 0.90881997
0.071725003 -0.19960999 0.90171999
0.072645001 -0.19796 0.89428002
0.073574997 -0.19641 0.88726997
0.074882001 -0.19589999 0.88498002
0.076256998 -0.19559 0.88358998
0.077618003 -0.19526 0.88207
0.079020999 -0.19504 0.88108999
0.080411002 -0.1948 0.88001001
0.081830002 -0.19464 0.87926
0.083238997 -0.19446 0.87844998
0.084656999 -0.1943 0.87774998
0.086121 -0.19426 0.87755001
0.087613001 -0.19427 0.87763
0.089109004 -0.1943 0.87775999
0.090631999 -0.19439 0.87813997
0.09217 -0.1945 0.87865001
0.09364 -0.19447 0.87849998
